732063.0 5902612.0 205.1
732063.0 5902612.0 185.1
732063.0 5902612.0 165.1
732063.0 5902612.0 162.1
732361.0 5902869.0 201.0
732361.0 5902869.0 181.0
732361.0 5902869.0 174.0
734708.0 5904509.0 198.1
734708.0 5904509.0 179.1
731408.0 5902592.0 211.1
731408.0 5902592.0 198.1
736491.0 5905741.0 193.6
736491.0 5905741.0 173.6
736491.0 5905741.0 165.6
731942.0 5900477.0 210.4
731942.0 5900477.0 191.4
731022.0 5896827.0 224.7
731022.0 5896827.0 209.7
740272.0 5904377.0 188.7
740272.0 5904377.0 168.7
740272.0 5904377.0 148.7
740272.0 5904377.0 128.7
740272.0 5904377.0 116.7
731800.0 5867157.0 415.9
731800.0 5867157.0 395.9
731800.0 5867157.0 375.9
731800.0 5867157.0 355.9
731800.0 5867157.0 335.9
731800.0 5867157.0 321.9
718422.0 5876077.0 358.7
718422.0 5876077.0 338.7
718422.0 5876077.0 318.7
718422.0 5876077.0 305.7
718522.0 5874477.0 355.8
718522.0 5874477.0 335.8
718522.0 5874477.0 315.8
718522.0 5874477.0 302.8
725542.0 5893047.0 266.9
725542.0 5893047.0 246.9
725542.0 5893047.0 236.9
731612.0 5864597.0 463.7
731612.0 5864597.0 443.7
731612.0 5864597.0 423.7
731612.0 5864597.0 403.7
731612.0 5864597.0 383.7
731612.0 5864597.0 378.7
725822.0 5865117.0 432.9
725822.0 5865117.0 412.9
725822.0 5865117.0 392.9
725822.0 5865117.0 372.9
725822.0 5865117.0 357.9
725442.0 5864897.0 429.2
725442.0 5864897.0 409.2
725442.0 5864897.0 389.2
725442.0 5864897.0 369.2
729242.0 5865577.0 465.2
729242.0 5865577.0 445.2
729242.0 5865577.0 425.2
729242.0 5865577.0 405.2
729242.0 5865577.0 390.2
731952.0 5865137.0 465.6
731952.0 5865137.0 445.6
731952.0 5865137.0 425.6
731952.0 5865137.0 405.6
731952.0 5865137.0 397.6
734007.0 5865037.0 412.1
734007.0 5865037.0 392.1
734007.0 5865037.0 372.1
734007.0 5865037.0 352.1
734007.0 5865037.0 351.1
732827.0 5885829.0 277.2
732827.0 5885829.0 257.2
732827.0 5885829.0 237.2
732827.0 5885829.0 217.2
732827.0 5885829.0 211.2
729912.0 5864067.0 516.5
729912.0 5864067.0 496.5
729912.0 5864067.0 476.5
729912.0 5864067.0 456.5
729912.0 5864067.0 436.5
729912.0 5864067.0 426.5
727242.0 5864837.0 438.8
727242.0 5864837.0 418.8
727242.0 5864837.0 398.8
727242.0 5864837.0 378.8
727242.0 5864837.0 358.8
745623.0 5901335.0 204.5
745623.0 5901335.0 193.5
746113.0 5901146.0 204.4
746113.0 5901146.0 193.4
746216.0 5901817.0 202.2
746216.0 5901817.0 191.2
746224.0 5902904.0 197.7
746224.0 5902904.0 187.7
746544.0 5902869.0 197.7
746544.0 5902869.0 179.7
746713.0 5903943.0 193.5
746713.0 5903943.0 173.5
746713.0 5903943.0 163.5
728002.0 5863677.0 457.3
728002.0 5863677.0 437.3
728002.0 5863677.0 417.3
728002.0 5863677.0 397.3
728002.0 5863677.0 383.3
730102.0 5865017.0 483.4
730102.0 5865017.0 463.4
730102.0 5865017.0 443.4
730102.0 5865017.0 423.4
730102.0 5865017.0 403.4
730102.0 5865017.0 383.4
730102.0 5865017.0 363.4
742622.0 5907677.0 183.6
742622.0 5907677.0 163.6
742622.0 5907677.0 153.6
734082.0 5863937.0 417.2
734082.0 5863937.0 397.2
734082.0 5863937.0 382.2
725482.0 5891147.0 269.2
725482.0 5891147.0 249.2
725482.0 5891147.0 245.2
727602.0 5863662.0 455.6
727602.0 5863662.0 435.6
727602.0 5863662.0 415.6
727602.0 5863662.0 395.6
727602.0 5863662.0 392.6
727560.0 5864393.0 447.9
727560.0 5864393.0 427.9
727560.0 5864393.0 407.9
727560.0 5864393.0 387.9
727560.0 5864393.0 367.9
727560.0 5864393.0 361.9
727712.0 5864048.0 460.1
727712.0 5864048.0 440.1
727712.0 5864048.0 420.1
727712.0 5864048.0 400.1
727712.0 5864048.0 380.1
727712.0 5864048.0 363.1
740921.0 5904684.0 186.2
740921.0 5904684.0 166.2
740921.0 5904684.0 146.2
740921.0 5904684.0 126.2
740921.0 5904684.0 106.2
740921.0 5904684.0 105.2
740852.0 5905132.0 187.1
740852.0 5905132.0 167.1
740852.0 5905132.0 147.1
740852.0 5905132.0 145.1
741184.0 5904876.0 186.0
741184.0 5904876.0 166.0
741184.0 5904876.0 146.0
741184.0 5904876.0 132.0
741825.0 5905000.0 183.6
741825.0 5905000.0 163.6
741825.0 5905000.0 143.6
741825.0 5905000.0 123.6
741825.0 5905000.0 115.6
741184.0 5904863.0 186.0
741184.0 5904863.0 166.0
741184.0 5904863.0 146.0
741184.0 5904863.0 127.0
741183.0 5904850.0 186.0
741183.0 5904850.0 166.0
741183.0 5904850.0 146.0
741183.0 5904850.0 126.0
741183.0 5904850.0 119.0
741184.0 5904863.0 186.0
741184.0 5904863.0 166.0
741184.0 5904863.0 146.0
741184.0 5904863.0 126.0
741184.0 5904863.0 113.0
741184.0 5904863.0 186.0
741184.0 5904863.0 166.0
741184.0 5904863.0 146.0
741184.0 5904863.0 126.0
741184.0 5904863.0 124.0
739005.0 5905644.0 189.0
739005.0 5905644.0 169.0
739005.0 5905644.0 149.0
739005.0 5905644.0 146.0
742967.0 5908448.0 180.3
742967.0 5908448.0 160.3
742967.0 5908448.0 140.3
742967.0 5908448.0 120.3
742967.0 5908448.0 118.3
743002.0 5908370.0 180.3
743002.0 5908370.0 160.3
743002.0 5908370.0 140.3
743002.0 5908370.0 120.3
743002.0 5908370.0 112.3
743037.0 5908305.0 180.4
743037.0 5908305.0 160.4
743037.0 5908305.0 140.4
743037.0 5908305.0 120.4
743037.0 5908305.0 118.4
743123.0 5908225.0 180.7
743123.0 5908225.0 160.7
743123.0 5908225.0 140.7
743123.0 5908225.0 137.7
745722.0 5909816.0 176.7
745722.0 5909816.0 156.7
745722.0 5909816.0 145.7
744713.0 5908524.0 180.0
744713.0 5908524.0 165.0
745198.0 5909152.0 178.8
745198.0 5909152.0 158.8
745198.0 5909152.0 138.8
745198.0 5909152.0 128.8
745415.0 5909180.0 179.3
745415.0 5909180.0 159.3
745415.0 5909180.0 144.3
744441.0 5909299.0 178.4
744441.0 5909299.0 167.4
743225.0 5907356.0 181.7
743225.0 5907356.0 161.7
743225.0 5907356.0 141.7
743225.0 5907356.0 121.7
743225.0 5907356.0 120.7
743185.0 5907612.0 181.8
743185.0 5907612.0 161.8
743185.0 5907612.0 141.8
743185.0 5907612.0 121.8
743185.0 5907612.0 116.8
743046.0 5907630.0 182.5
743046.0 5907630.0 162.5
743046.0 5907630.0 142.5
743046.0 5907630.0 122.5
743046.0 5907630.0 119.5
742894.0 5907637.0 183.1
742894.0 5907637.0 163.1
742894.0 5907637.0 143.1
742894.0 5907637.0 135.1
742744.0 5907694.0 183.3
742744.0 5907694.0 163.3
742744.0 5907694.0 143.3
742744.0 5907694.0 141.3
742774.0 5907808.0 182.7
742774.0 5907808.0 162.7
742774.0 5907808.0 142.7
742774.0 5907808.0 141.7
742649.0 5909606.0 180.6
742649.0 5909606.0 161.6
742823.0 5909522.0 180.6
742823.0 5909522.0 160.6
743001.0 5909514.0 180.2
743001.0 5909514.0 162.2
743505.0 5909416.0 180.5
743505.0 5909416.0 164.5
743316.0 5909450.0 180.2
743316.0 5909450.0 165.2
733254.0 5872988.0 349.4
733254.0 5872988.0 329.4
733254.0 5872988.0 309.4
733254.0 5872988.0 291.4
733909.0 5872406.0 363.6
733909.0 5872406.0 343.6
733909.0 5872406.0 327.6
727508.0 5872582.0 394.0
727508.0 5872582.0 374.0
727508.0 5872582.0 354.0
727508.0 5872582.0 334.0
727508.0 5872582.0 326.0
727831.0 5872438.0 403.3
727831.0 5872438.0 383.3
727831.0 5872438.0 363.3
727831.0 5872438.0 343.3
727831.0 5872438.0 323.3
727831.0 5872438.0 303.3
727831.0 5872438.0 285.3
728367.0 5872244.0 392.9
728367.0 5872244.0 372.9
728367.0 5872244.0 352.9
728367.0 5872244.0 332.9
728367.0 5872244.0 312.9
728367.0 5872244.0 292.9
728367.0 5872244.0 272.9
728367.0 5872244.0 271.9
727206.0 5895051.0 255.3
727206.0 5895051.0 235.3
727206.0 5895051.0 231.3
725217.0 5891150.0 273.8
725217.0 5891150.0 266.8
727600.0 5883400.0 278.4
727600.0 5883400.0 262.4
741589.0 5899485.0 217.4
741589.0 5899485.0 197.4
741589.0 5899485.0 184.4
740456.0 5905098.0 187.9
740456.0 5905098.0 167.9
740456.0 5905098.0 156.9
740400.0 5904973.0 188.3
740400.0 5904973.0 168.3
740400.0 5904973.0 148.3
740400.0 5904973.0 130.3
740478.0 5904728.0 188.0
740478.0 5904728.0 168.0
740478.0 5904728.0 148.0
740478.0 5904728.0 128.0
740478.0 5904728.0 117.0
740464.0 5904691.0 188.0
740464.0 5904691.0 168.0
740464.0 5904691.0 148.0
740464.0 5904691.0 128.0
740464.0 5904691.0 108.0
740464.0 5904691.0 106.0
740443.0 5904501.0 187.9
740443.0 5904501.0 167.9
740443.0 5904501.0 147.9
740443.0 5904501.0 127.9
740443.0 5904501.0 107.9
740428.0 5904451.0 188.0
740428.0 5904451.0 168.0
740428.0 5904451.0 148.0
740428.0 5904451.0 128.0
740428.0 5904451.0 109.0
732188.0 5902991.0 207.9
732188.0 5902991.0 187.9
732188.0 5902991.0 167.9
732188.0 5902991.0 147.9
732188.0 5902991.0 143.9
732188.0 5902991.0 207.9
732188.0 5902991.0 187.9
732188.0 5902991.0 167.9
732188.0 5902991.0 153.9
732188.0 5902991.0 207.9
732188.0 5902991.0 187.9
732188.0 5902991.0 167.9
732188.0 5902991.0 149.9
732188.0 5902991.0 207.9
732188.0 5902991.0 187.9
732188.0 5902991.0 167.9
732188.0 5902991.0 150.9
732188.0 5902991.0 207.9
732188.0 5902991.0 187.9
732188.0 5902991.0 167.9
732188.0 5902991.0 156.9
732188.0 5902991.0 207.9
732188.0 5902991.0 187.9
732188.0 5902991.0 167.9
732188.0 5902991.0 159.9
732188.0 5902991.0 207.9
732188.0 5902991.0 187.9
732188.0 5902991.0 167.9
732188.0 5902991.0 147.9
732188.0 5902991.0 137.9
732188.0 5902991.0 207.9
732188.0 5902991.0 187.9
732188.0 5902991.0 167.9
732188.0 5902991.0 147.9
732188.0 5902991.0 143.9
732188.0 5902991.0 207.9
732188.0 5902991.0 187.9
732188.0 5902991.0 167.9
732188.0 5902991.0 147.9
732188.0 5902991.0 142.9
732188.0 5902991.0 207.9
732188.0 5902991.0 187.9
732188.0 5902991.0 167.9
732188.0 5902991.0 147.9
732188.0 5902991.0 144.9
738837.0 5904991.0 190.2
738837.0 5904991.0 170.2
738837.0 5904991.0 150.2
738837.0 5904991.0 130.2
738837.0 5904991.0 128.2
738777.0 5904497.0 189.2
738777.0 5904497.0 169.2
738777.0 5904497.0 149.2
738777.0 5904497.0 129.2
738777.0 5904497.0 124.2
738762.0 5904447.0 189.3
738762.0 5904447.0 169.3
738762.0 5904447.0 149.3
738762.0 5904447.0 129.3
738762.0 5904447.0 124.3
738718.0 5904309.0 189.9
738718.0 5904309.0 169.9
738718.0 5904309.0 149.9
738718.0 5904309.0 129.9
738718.0 5904309.0 128.9
738731.0 5904321.0 189.9
738731.0 5904321.0 169.9
738731.0 5904321.0 149.9
738731.0 5904321.0 129.9
738731.0 5904321.0 128.9
738711.0 5904144.0 190.5
738711.0 5904144.0 170.5
738711.0 5904144.0 150.5
738711.0 5904144.0 130.5
738711.0 5904144.0 122.5
739442.0 5903718.0 190.0
739442.0 5903718.0 170.0
739442.0 5903718.0 151.0
739506.0 5903728.0 190.0
739506.0 5903728.0 170.0
739506.0 5903728.0 154.0
739620.0 5903698.0 190.0
739620.0 5903698.0 170.0
739620.0 5903698.0 158.0
739707.0 5903668.0 190.0
739707.0 5903668.0 170.0
739707.0 5903668.0 157.0
739771.0 5903678.0 189.7
739771.0 5903678.0 174.7
739446.0 5902624.0 190.8
739446.0 5902624.0 170.8
739446.0 5902624.0 160.8
738723.0 5903851.0 192.4
738723.0 5903851.0 172.4
738723.0 5903851.0 152.4
738723.0 5903851.0 132.4
738723.0 5903851.0 128.4
738678.0 5903675.0 195.1
738678.0 5903675.0 175.1
738678.0 5903675.0 155.1
738678.0 5903675.0 137.1
739189.0 5902279.0 191.0
739189.0 5902279.0 184.0
739202.0 5902279.0 190.9
739202.0 5902279.0 183.9
739202.0 5902279.0 190.9
739202.0 5902279.0 186.9
739202.0 5902279.0 190.9
739202.0 5902279.0 186.9
739202.0 5902279.0 190.9
739202.0 5902279.0 186.9
739202.0 5902292.0 190.9
739202.0 5902292.0 183.9
735762.0 5886697.0 269.4
735762.0 5886697.0 249.4
735762.0 5886697.0 229.4
735762.0 5886697.0 209.4
735762.0 5886697.0 194.4
735922.0 5886537.0 266.7
735922.0 5886537.0 246.7
735922.0 5886537.0 226.7
735922.0 5886537.0 206.7
735922.0 5886537.0 186.7
735922.0 5886537.0 166.7
735922.0 5886537.0 146.7
735922.0 5886537.0 141.7
737100.0 5917108.0 234.7
737100.0 5917108.0 214.7
737100.0 5917108.0 194.7
737100.0 5917108.0 177.7
741122.0 5903377.0 189.5
741122.0 5903377.0 169.5
741122.0 5903377.0 149.5
741122.0 5903377.0 129.5
741122.0 5903377.0 109.5
741122.0 5903377.0 98.5
737735.0 5911829.0 206.4
737735.0 5911829.0 186.4
737735.0 5911829.0 177.4
734322.0 5906377.0 198.9
734322.0 5906377.0 178.9
734322.0 5906377.0 176.9
727202.0 5892357.0 261.0
727202.0 5892357.0 241.0
727202.0 5892357.0 221.0
727202.0 5892357.0 201.0
732402.0 5872067.0 364.3
732402.0 5872067.0 344.3
732402.0 5872067.0 331.3
732922.0 5873227.0 353.7
732922.0 5873227.0 333.7
732922.0 5873227.0 329.7
726942.0 5864284.0 451.6
726942.0 5864284.0 431.6
726942.0 5864284.0 411.6
726942.0 5864284.0 391.6
726942.0 5864284.0 371.6
726942.0 5864284.0 369.6
744922.0 5912777.0 204.3
744922.0 5912777.0 184.3
744922.0 5912777.0 164.3
744922.0 5912777.0 144.3
744922.0 5912777.0 137.3
744722.0 5913477.0 221.5
744722.0 5913477.0 201.5
744722.0 5913477.0 181.5
744722.0 5913477.0 161.5
744722.0 5913477.0 154.5
745342.0 5912697.0 200.1
745342.0 5912697.0 180.1
745342.0 5912697.0 160.1
745342.0 5912697.0 140.1
745342.0 5912697.0 120.1
745342.0 5912697.0 100.1
745342.0 5912697.0 92.1
730886.0 5864325.0 495.6
730886.0 5864325.0 475.6
730886.0 5864325.0 455.6
730886.0 5864325.0 435.6
730886.0 5864325.0 434.6
729454.0 5864184.0 493.1
729454.0 5864184.0 473.1
729454.0 5864184.0 460.1
728983.0 5865360.0 465.4
728983.0 5865360.0 445.4
728983.0 5865360.0 425.4
728983.0 5865360.0 405.4
728983.0 5865360.0 402.4
725222.0 5893997.0 254.1
725222.0 5893997.0 234.1
725222.0 5893997.0 214.1
725222.0 5893997.0 194.1
725222.0 5893997.0 174.1
725222.0 5893997.0 157.1
717322.0 5870477.0 500.7
717322.0 5870477.0 480.7
717322.0 5870477.0 460.7
717322.0 5870477.0 440.7
717322.0 5870477.0 420.7
717322.0 5870477.0 409.7
729681.0 5870730.0 399.3
729681.0 5870730.0 379.3
729681.0 5870730.0 359.3
729681.0 5870730.0 339.3
729681.0 5870730.0 337.3
729422.0 5869677.0 422.4
729422.0 5869677.0 402.4
729422.0 5869677.0 382.4
729422.0 5869677.0 362.4
722422.0 5868677.0 339.2
722422.0 5868677.0 319.2
722422.0 5868677.0 299.2
722422.0 5868677.0 279.2
722422.0 5868677.0 269.2
720522.0 5865677.0 444.7
720522.0 5865677.0 424.7
720522.0 5865677.0 404.7
720522.0 5865677.0 384.7
720522.0 5865677.0 364.7
720522.0 5865677.0 344.7
732982.0 5865777.0 415.6
732982.0 5865777.0 395.6
732982.0 5865777.0 375.6
732982.0 5865777.0 369.6
728072.0 5881777.0 283.3
728072.0 5881777.0 263.3
728072.0 5881777.0 245.3
724139.0 5863536.0 401.8
724139.0 5863536.0 381.8
724139.0 5863536.0 361.8
724139.0 5863536.0 359.8
725822.0 5864746.0 435.9
725822.0 5864746.0 415.9
725822.0 5864746.0 396.9
724104.0 5863913.0 401.2
724104.0 5863913.0 381.2
724104.0 5863913.0 373.2
725822.0 5863577.0 419.6
725822.0 5863577.0 401.6
741522.0 5903177.0 191.1
741522.0 5903177.0 171.1
741522.0 5903177.0 151.1
741522.0 5903177.0 143.1
733339.0 5870442.0 376.3
733339.0 5870442.0 356.3
733339.0 5870442.0 336.3
733339.0 5870442.0 316.3
733339.0 5870442.0 300.3
728872.0 5876301.0 319.9
728872.0 5876301.0 299.9
728872.0 5876301.0 279.9
728872.0 5876301.0 259.9
728872.0 5876301.0 239.9
733567.0 5872694.0 361.4
733567.0 5872694.0 341.4
733567.0 5872694.0 321.4
733567.0 5872694.0 301.4
733567.0 5872694.0 289.4
729472.0 5909177.0 250.4
729472.0 5909177.0 230.4
730122.0 5908177.0 268.8
730122.0 5908177.0 248.8
730122.0 5908177.0 242.8
728422.0 5908757.0 264.0
728422.0 5908757.0 244.0
728422.0 5908757.0 224.0
728422.0 5908757.0 204.0
729100.0 5897850.0 243.7
729100.0 5897850.0 240.7
