721500.0 5883000.0 269.0
721500.0 5883000.0 279.0
721500.0 5883000.0 289.0
721500.0 5883500.0 262.1
721500.0 5883500.0 272.1
721500.0 5883500.0 282.1
721500.0 5884000.0 261.9
721500.0 5884000.0 271.9
721500.0 5884000.0 281.9
721500.0 5884500.0 259.1
721500.0 5884500.0 269.1
721500.0 5884500.0 279.1
721500.0 5890500.0 249.1
721500.0 5890500.0 259.1
721500.0 5890500.0 269.1
721500.0 5891000.0 252.8
721500.0 5891000.0 262.8
721500.0 5891000.0 272.8
721500.0 5891500.0 250.2
721500.0 5891500.0 260.2
721500.0 5891500.0 270.2
721500.0 5895000.0 226.2
721500.0 5895000.0 236.2
721500.0 5895000.0 246.2
721500.0 5895500.0 232.2
721500.0 5895500.0 242.2
721500.0 5895500.0 252.2
721500.0 5896000.0 242.5
721500.0 5896000.0 252.5
721500.0 5896000.0 262.5
721500.0 5896500.0 231.8
721500.0 5896500.0 241.8
721500.0 5896500.0 251.8
722000.0 5865500.0 424.3
722000.0 5865500.0 434.3
722000.0 5865500.0 444.3
722000.0 5866000.0 439.6
722000.0 5866000.0 449.6
722000.0 5866000.0 459.6
722000.0 5866500.0 417.2
722000.0 5866500.0 427.2
722000.0 5866500.0 437.2
722000.0 5867000.0 386.4
722000.0 5867000.0 396.4
722000.0 5867000.0 406.4
722000.0 5867500.0 359.8
722000.0 5867500.0 369.8
722000.0 5867500.0 379.8
722000.0 5868000.0 350.3
722000.0 5868000.0 360.3
722000.0 5868000.0 370.3
722000.0 5877500.0 286.9
722000.0 5877500.0 296.9
722000.0 5877500.0 306.9
722000.0 5878000.0 288.7
722000.0 5878000.0 298.7
722000.0 5878000.0 308.7
722000.0 5878500.0 277.8
722000.0 5878500.0 287.8
722000.0 5878500.0 297.8
722000.0 5879000.0 282.3
722000.0 5879000.0 292.3
722000.0 5879000.0 302.3
722000.0 5879500.0 281.0
722000.0 5879500.0 291.0
722000.0 5879500.0 301.0
722000.0 5880000.0 289.3
722000.0 5880000.0 299.3
722000.0 5880000.0 309.3
722000.0 5880500.0 289.1
722000.0 5880500.0 299.1
722000.0 5880500.0 309.1
722000.0 5881000.0 284.3
722000.0 5881000.0 294.3
722000.0 5881000.0 304.3
722000.0 5881500.0 280.1
722000.0 5881500.0 290.1
722000.0 5881500.0 300.1
722000.0 5882000.0 278.7
722000.0 5882000.0 288.7
722000.0 5882000.0 298.7
722000.0 5882500.0 270.0
722000.0 5882500.0 280.0
722000.0 5882500.0 290.0
722000.0 5883000.0 270.9
722000.0 5883000.0 280.9
722000.0 5883000.0 290.9
722000.0 5883500.0 267.3
722000.0 5883500.0 277.3
722000.0 5883500.0 287.3
722000.0 5884000.0 258.7
722000.0 5884000.0 268.7
722000.0 5884000.0 278.7
722000.0 5890000.0 245.5
722000.0 5890000.0 255.5
722000.0 5890000.0 265.5
722000.0 5890500.0 253.0
722000.0 5890500.0 263.0
722000.0 5890500.0 273.0
722000.0 5891000.0 253.7
722000.0 5891000.0 263.7
722000.0 5891000.0 273.7
722000.0 5894500.0 229.7
722000.0 5894500.0 239.7
722000.0 5894500.0 249.7
722000.0 5895000.0 240.5
722000.0 5895000.0 250.5
722000.0 5895000.0 260.5
722000.0 5895500.0 240.0
722000.0 5895500.0 250.0
722000.0 5895500.0 260.0
722000.0 5896000.0 239.6
722000.0 5896000.0 249.6
722000.0 5896000.0 259.6
722000.0 5896500.0 229.5
722000.0 5896500.0 239.5
722000.0 5896500.0 249.5
722500.0 5865500.0 441.5
722500.0 5865500.0 451.5
722500.0 5865500.0 461.5
722500.0 5866000.0 410.5
722500.0 5866000.0 420.5
722500.0 5866000.0 430.5
722500.0 5866500.0 415.0
722500.0 5866500.0 425.0
722500.0 5866500.0 435.0
722500.0 5867000.0 390.0
722500.0 5867000.0 400.0
722500.0 5867000.0 410.0
722500.0 5867500.0 348.8
722500.0 5867500.0 358.8
722500.0 5867500.0 368.8
722500.0 5868000.0 339.3
722500.0 5868000.0 349.3
722500.0 5868000.0 359.3
722500.0 5878000.0 277.8
722500.0 5878000.0 287.8
722500.0 5878000.0 297.8
722500.0 5878500.0 276.0
722500.0 5878500.0 286.0
722500.0 5878500.0 296.0
722500.0 5879000.0 270.1
722500.0 5879000.0 280.1
722500.0 5879000.0 290.1
722500.0 5879500.0 267.7
722500.0 5879500.0 277.7
722500.0 5879500.0 287.7
722500.0 5880000.0 268.0
722500.0 5880000.0 278.0
722500.0 5880000.0 288.0
722500.0 5880500.0 278.4
722500.0 5880500.0 288.4
722500.0 5880500.0 298.4
722500.0 5881000.0 279.6
722500.0 5881000.0 289.6
722500.0 5881000.0 299.6
722500.0 5881500.0 289.2
722500.0 5881500.0 299.2
722500.0 5881500.0 309.2
722500.0 5882000.0 290.3
722500.0 5882000.0 300.3
722500.0 5882000.0 310.3
722500.0 5882500.0 278.7
722500.0 5882500.0 288.7
722500.0 5882500.0 298.7
722500.0 5883000.0 289.7
722500.0 5883000.0 299.7
722500.0 5883000.0 309.7
722500.0 5883500.0 275.6
722500.0 5883500.0 285.6
722500.0 5883500.0 295.6
722500.0 5889500.0 261.1
722500.0 5889500.0 271.1
722500.0 5889500.0 281.1
722500.0 5890000.0 260.8
722500.0 5890000.0 270.8
722500.0 5890000.0 280.8
722500.0 5894000.0 240.0
722500.0 5894000.0 250.0
722500.0 5894000.0 260.0
722500.0 5894500.0 239.4
722500.0 5894500.0 249.4
722500.0 5894500.0 259.4
722500.0 5895000.0 247.5
722500.0 5895000.0 257.5
722500.0 5895000.0 267.5
722500.0 5895500.0 237.3
722500.0 5895500.0 247.3
722500.0 5895500.0 257.3
722500.0 5896000.0 230.3
722500.0 5896000.0 240.3
722500.0 5896000.0 250.3
722500.0 5896500.0 225.9
722500.0 5896500.0 235.9
722500.0 5896500.0 245.9
723000.0 5865000.0 404.9
723000.0 5865000.0 414.9
723000.0 5865000.0 424.9
723000.0 5865500.0 402.3
723000.0 5865500.0 412.3
723000.0 5865500.0 422.3
723000.0 5866000.0 384.5
723000.0 5866000.0 394.5
723000.0 5866000.0 404.5
723000.0 5866500.0 381.2
723000.0 5866500.0 391.2
723000.0 5866500.0 401.2
723000.0 5867000.0 360.6
723000.0 5867000.0 370.6
723000.0 5867000.0 380.6
723000.0 5878500.0 270.2
723000.0 5878500.0 280.2
723000.0 5878500.0 290.2
723000.0 5879000.0 268.9
723000.0 5879000.0 278.9
723000.0 5879000.0 288.9
723000.0 5879500.0 269.9
723000.0 5879500.0 279.9
723000.0 5879500.0 289.9
723000.0 5880000.0 268.5
723000.0 5880000.0 278.5
723000.0 5880000.0 288.5
723000.0 5880500.0 259.9
723000.0 5880500.0 269.9
723000.0 5880500.0 279.9
723000.0 5881000.0 268.2
723000.0 5881000.0 278.2
723000.0 5881000.0 288.2
723000.0 5881500.0 270.5
723000.0 5881500.0 280.5
723000.0 5881500.0 290.5
723000.0 5882000.0 285.5
723000.0 5882000.0 295.5
723000.0 5882000.0 305.5
723000.0 5882500.0 294.8
723000.0 5882500.0 304.8
723000.0 5882500.0 314.8
723000.0 5883000.0 290.4
723000.0 5883000.0 300.4
723000.0 5883000.0 310.4
723000.0 5883500.0 286.3
723000.0 5883500.0 296.3
723000.0 5883500.0 306.3
723000.0 5884000.0 287.9
723000.0 5884000.0 297.9
723000.0 5884000.0 307.9
723000.0 5889000.0 268.1
723000.0 5889000.0 278.1
723000.0 5889000.0 288.1
723000.0 5889500.0 263.0
723000.0 5889500.0 273.0
723000.0 5889500.0 283.0
723000.0 5893500.0 260.4
723000.0 5893500.0 270.4
723000.0 5893500.0 280.4
723000.0 5894000.0 250.0
723000.0 5894000.0 260.0
723000.0 5894000.0 270.0
723000.0 5894500.0 250.9
723000.0 5894500.0 260.9
723000.0 5894500.0 270.9
723000.0 5895000.0 253.9
723000.0 5895000.0 263.9
723000.0 5895000.0 273.9
723000.0 5895500.0 240.5
723000.0 5895500.0 250.5
723000.0 5895500.0 260.5
723000.0 5896000.0 240.2
723000.0 5896000.0 250.2
723000.0 5896000.0 260.2
723500.0 5865000.0 414.0
723500.0 5865000.0 424.0
723500.0 5865000.0 434.0
723500.0 5865500.0 414.1
723500.0 5865500.0 424.1
723500.0 5865500.0 434.1
723500.0 5866000.0 381.4
723500.0 5866000.0 391.4
723500.0 5866000.0 401.4
723500.0 5866500.0 359.3
723500.0 5866500.0 369.3
723500.0 5866500.0 379.3
723500.0 5878500.0 277.8
723500.0 5878500.0 287.8
723500.0 5878500.0 297.8
723500.0 5879000.0 276.7
723500.0 5879000.0 286.7
723500.0 5879000.0 296.7
723500.0 5879500.0 275.9
723500.0 5879500.0 285.9
723500.0 5879500.0 295.9
723500.0 5880000.0 272.8
723500.0 5880000.0 282.8
723500.0 5880000.0 292.8
723500.0 5880500.0 270.2
723500.0 5880500.0 280.2
723500.0 5880500.0 290.2
723500.0 5881000.0 258.3
723500.0 5881000.0 268.3
723500.0 5881000.0 278.3
723500.0 5881500.0 270.7
723500.0 5881500.0 280.7
723500.0 5881500.0 290.7
723500.0 5882000.0 281.8
723500.0 5882000.0 291.8
723500.0 5882000.0 301.8
723500.0 5882500.0 289.9
723500.0 5882500.0 299.9
723500.0 5882500.0 309.9
723500.0 5883000.0 290.5
723500.0 5883000.0 300.5
723500.0 5883000.0 310.5
723500.0 5883500.0 285.3
723500.0 5883500.0 295.3
723500.0 5883500.0 305.3
723500.0 5884000.0 288.8
723500.0 5884000.0 298.8
723500.0 5884000.0 308.8
723500.0 5884500.0 276.0
723500.0 5884500.0 286.0
723500.0 5884500.0 296.0
723500.0 5885000.0 270.6
723500.0 5885000.0 280.6
723500.0 5885000.0 290.6
723500.0 5888500.0 268.9
723500.0 5888500.0 278.9
723500.0 5888500.0 288.9
723500.0 5889000.0 266.8
723500.0 5889000.0 276.8
723500.0 5889000.0 286.8
723500.0 5889500.0 280.3
723500.0 5889500.0 290.3
723500.0 5889500.0 300.3
723500.0 5890000.0 279.5
723500.0 5890000.0 289.5
723500.0 5890000.0 299.5
723500.0 5892000.0 286.8
723500.0 5892000.0 296.8
723500.0 5892000.0 306.8
723500.0 5892500.0 280.1
723500.0 5892500.0 290.1
723500.0 5892500.0 300.1
723500.0 5893000.0 280.0
723500.0 5893000.0 290.0
723500.0 5893000.0 300.0
723500.0 5893500.0 270.1
723500.0 5893500.0 280.1
723500.0 5893500.0 290.1
723500.0 5894000.0 260.3
723500.0 5894000.0 270.3
723500.0 5894000.0 280.3
723500.0 5894500.0 262.8
723500.0 5894500.0 272.8
723500.0 5894500.0 282.8
723500.0 5895000.0 260.7
723500.0 5895000.0 270.7
723500.0 5895000.0 280.7
723500.0 5895500.0 250.2
723500.0 5895500.0 260.2
723500.0 5895500.0 270.2
723500.0 5896000.0 240.0
723500.0 5896000.0 250.0
723500.0 5896000.0 260.0
724000.0 5864500.0 401.2
724000.0 5864500.0 411.2
724000.0 5864500.0 421.2
724000.0 5865000.0 414.8
724000.0 5865000.0 424.8
724000.0 5865000.0 434.8
724000.0 5865500.0 411.4
724000.0 5865500.0 421.4
724000.0 5865500.0 431.4
724000.0 5866000.0 402.3
724000.0 5866000.0 412.3
724000.0 5866000.0 422.3
724000.0 5866500.0 366.7
724000.0 5866500.0 376.7
724000.0 5866500.0 386.7
724000.0 5867000.0 370.1
724000.0 5867000.0 380.1
724000.0 5867000.0 390.1
724000.0 5878000.0 290.0
724000.0 5878000.0 300.0
724000.0 5878000.0 310.0
724000.0 5878500.0 282.3
724000.0 5878500.0 292.3
724000.0 5878500.0 302.3
724000.0 5879000.0 280.2
724000.0 5879000.0 290.2
724000.0 5879000.0 300.2
724000.0 5879500.0 277.9
724000.0 5879500.0 287.9
724000.0 5879500.0 297.9
724000.0 5880000.0 269.2
724000.0 5880000.0 279.2
724000.0 5880000.0 289.2
724000.0 5880500.0 270.7
724000.0 5880500.0 280.7
724000.0 5880500.0 290.7
724000.0 5881000.0 258.8
724000.0 5881000.0 268.8
724000.0 5881000.0 278.8
724000.0 5881500.0 260.1
724000.0 5881500.0 270.1
724000.0 5881500.0 280.1
724000.0 5882000.0 271.4
724000.0 5882000.0 281.4
724000.0 5882000.0 291.4
724000.0 5882500.0 280.0
724000.0 5882500.0 290.0
724000.0 5882500.0 300.0
724000.0 5883000.0 291.8
724000.0 5883000.0 301.8
724000.0 5883000.0 311.8
724000.0 5883500.0 281.0
724000.0 5883500.0 291.0
724000.0 5883500.0 301.0
724000.0 5884000.0 271.1
724000.0 5884000.0 281.1
724000.0 5884000.0 291.1
724000.0 5884500.0 264.9
724000.0 5884500.0 274.9
724000.0 5884500.0 284.9
724000.0 5888000.0 270.6
724000.0 5888000.0 280.6
724000.0 5888000.0 290.6
724000.0 5888500.0 280.3
724000.0 5888500.0 290.3
724000.0 5888500.0 300.3
724000.0 5889000.0 280.0
724000.0 5889000.0 290.0
724000.0 5889000.0 300.0
724000.0 5889500.0 298.4
724000.0 5889500.0 308.4
724000.0 5889500.0 318.4
724000.0 5890000.0 286.4
724000.0 5890000.0 296.4
724000.0 5890000.0 306.4
724000.0 5890500.0 287.9
724000.0 5890500.0 297.9
724000.0 5890500.0 307.9
724000.0 5891000.0 286.9
724000.0 5891000.0 296.9
724000.0 5891000.0 306.9
724000.0 5891500.0 300.0
724000.0 5891500.0 310.0
724000.0 5891500.0 320.0
724000.0 5892000.0 284.3
724000.0 5892000.0 294.3
724000.0 5892000.0 304.3
724000.0 5892500.0 274.5
724000.0 5892500.0 284.5
724000.0 5892500.0 294.5
724000.0 5893000.0 263.9
724000.0 5893000.0 273.9
724000.0 5893000.0 283.9
724000.0 5893500.0 260.6
724000.0 5893500.0 270.6
724000.0 5893500.0 280.6
724000.0 5894000.0 267.6
724000.0 5894000.0 277.6
724000.0 5894000.0 287.6
724000.0 5894500.0 253.5
724000.0 5894500.0 263.5
724000.0 5894500.0 273.5
724000.0 5895000.0 251.3
724000.0 5895000.0 261.3
724000.0 5895000.0 271.3
724000.0 5895500.0 250.4
724000.0 5895500.0 260.4
724000.0 5895500.0 270.4
724000.0 5896000.0 236.9
724000.0 5896000.0 246.9
724000.0 5896000.0 256.9
724500.0 5864000.0 390.8
724500.0 5864000.0 400.8
724500.0 5864000.0 410.8
724500.0 5864500.0 400.0
724500.0 5864500.0 410.0
724500.0 5864500.0 420.0
724500.0 5865000.0 401.5
724500.0 5865000.0 411.5
724500.0 5865000.0 421.5
724500.0 5865500.0 409.7
724500.0 5865500.0 419.7
724500.0 5865500.0 429.7
724500.0 5866000.0 409.8
724500.0 5866000.0 419.8
724500.0 5866000.0 429.8
724500.0 5866500.0 399.2
724500.0 5866500.0 409.2
724500.0 5866500.0 419.2
724500.0 5867000.0 366.0
724500.0 5867000.0 376.0
724500.0 5867000.0 386.0
724500.0 5870500.0 342.5
724500.0 5870500.0 352.5
724500.0 5870500.0 362.5
724500.0 5871000.0 387.5
724500.0 5871000.0 397.5
724500.0 5871000.0 407.5
724500.0 5871500.0 382.3
724500.0 5871500.0 392.3
724500.0 5871500.0 402.3
724500.0 5872000.0 349.0
724500.0 5872000.0 359.0
724500.0 5872000.0 369.0
724500.0 5872500.0 340.6
724500.0 5872500.0 350.6
724500.0 5872500.0 360.6
724500.0 5873000.0 330.8
724500.0 5873000.0 340.8
724500.0 5873000.0 350.8
724500.0 5873500.0 331.3
724500.0 5873500.0 341.3
724500.0 5873500.0 351.3
724500.0 5874000.0 350.1
724500.0 5874000.0 360.1
724500.0 5874000.0 370.1
724500.0 5874500.0 326.6
724500.0 5874500.0 336.6
724500.0 5874500.0 346.6
724500.0 5875000.0 346.3
724500.0 5875000.0 356.3
724500.0 5875000.0 366.3
724500.0 5875500.0 351.6
724500.0 5875500.0 361.6
724500.0 5875500.0 371.6
724500.0 5876000.0 320.4
724500.0 5876000.0 330.4
724500.0 5876000.0 340.4
724500.0 5876500.0 309.8
724500.0 5876500.0 319.8
724500.0 5876500.0 329.8
724500.0 5877000.0 299.6
724500.0 5877000.0 309.6
724500.0 5877000.0 319.6
724500.0 5877500.0 292.4
724500.0 5877500.0 302.4
724500.0 5877500.0 312.4
724500.0 5878000.0 285.7
724500.0 5878000.0 295.7
724500.0 5878000.0 305.7
724500.0 5878500.0 284.0
724500.0 5878500.0 294.0
724500.0 5878500.0 304.0
724500.0 5879000.0 281.8
724500.0 5879000.0 291.8
724500.0 5879000.0 301.8
724500.0 5879500.0 280.1
724500.0 5879500.0 290.1
724500.0 5879500.0 300.1
724500.0 5880000.0 277.1
724500.0 5880000.0 287.1
724500.0 5880000.0 297.1
724500.0 5880500.0 276.2
724500.0 5880500.0 286.2
724500.0 5880500.0 296.2
724500.0 5881000.0 270.9
724500.0 5881000.0 280.9
724500.0 5881000.0 290.9
724500.0 5881500.0 254.2
724500.0 5881500.0 264.2
724500.0 5881500.0 274.2
724500.0 5882000.0 259.5
724500.0 5882000.0 269.5
724500.0 5882000.0 279.5
724500.0 5882500.0 270.6
724500.0 5882500.0 280.6
724500.0 5882500.0 290.6
724500.0 5883000.0 285.5
724500.0 5883000.0 295.5
724500.0 5883000.0 305.5
724500.0 5883500.0 290.2
724500.0 5883500.0 300.2
724500.0 5883500.0 310.2
724500.0 5884000.0 278.9
724500.0 5884000.0 288.9
724500.0 5884000.0 298.9
724500.0 5884500.0 280.0
724500.0 5884500.0 290.0
724500.0 5884500.0 300.0
724500.0 5887500.0 280.9
724500.0 5887500.0 290.9
724500.0 5887500.0 300.9
724500.0 5888000.0 290.3
724500.0 5888000.0 300.3
724500.0 5888000.0 310.3
724500.0 5888500.0 290.0
724500.0 5888500.0 300.0
724500.0 5888500.0 310.0
724500.0 5889000.0 290.3
724500.0 5889000.0 300.3
724500.0 5889000.0 310.3
724500.0 5889500.0 282.1
724500.0 5889500.0 292.1
724500.0 5889500.0 302.1
724500.0 5890000.0 287.1
724500.0 5890000.0 297.1
724500.0 5890000.0 307.1
724500.0 5890500.0 297.0
724500.0 5890500.0 307.0
724500.0 5890500.0 317.0
724500.0 5891000.0 288.8
724500.0 5891000.0 298.8
724500.0 5891000.0 308.8
724500.0 5891500.0 287.6
724500.0 5891500.0 297.6
724500.0 5891500.0 307.6
724500.0 5892000.0 282.9
724500.0 5892000.0 292.9
724500.0 5892000.0 302.9
724500.0 5892500.0 279.0
724500.0 5892500.0 289.0
724500.0 5892500.0 299.0
724500.0 5893000.0 270.0
724500.0 5893000.0 280.0
724500.0 5893000.0 290.0
724500.0 5893500.0 258.6
724500.0 5893500.0 268.6
724500.0 5893500.0 278.6
724500.0 5894000.0 260.7
724500.0 5894000.0 270.7
724500.0 5894000.0 280.7
724500.0 5894500.0 251.8
724500.0 5894500.0 261.8
724500.0 5894500.0 271.8
724500.0 5895000.0 244.2
724500.0 5895000.0 254.2
724500.0 5895000.0 264.2
724500.0 5895500.0 239.1
724500.0 5895500.0 249.1
724500.0 5895500.0 259.1
725000.0 5864000.0 399.3
725000.0 5864000.0 409.3
725000.0 5864000.0 419.3
725000.0 5864500.0 402.3
725000.0 5864500.0 412.3
725000.0 5864500.0 422.3
725000.0 5865000.0 410.4
725000.0 5865000.0 420.4
725000.0 5865000.0 430.4
725000.0 5865500.0 416.5
725000.0 5865500.0 426.5
725000.0 5865500.0 436.5
725000.0 5866000.0 425.7
725000.0 5866000.0 435.7
725000.0 5866000.0 445.7
725000.0 5866500.0 390.3
725000.0 5866500.0 400.3
725000.0 5866500.0 410.3
725000.0 5867000.0 384.2
725000.0 5867000.0 394.2
725000.0 5867000.0 404.2
725000.0 5869000.0 381.7
725000.0 5869000.0 391.7
725000.0 5869000.0 401.7
725000.0 5869500.0 353.3
725000.0 5869500.0 363.3
725000.0 5869500.0 373.3
725000.0 5870000.0 341.3
725000.0 5870000.0 351.3
725000.0 5870000.0 361.3
725000.0 5870500.0 351.5
725000.0 5870500.0 361.5
725000.0 5870500.0 371.5
725000.0 5871000.0 398.7
725000.0 5871000.0 408.7
725000.0 5871000.0 418.7
725000.0 5871500.0 378.4
725000.0 5871500.0 388.4
725000.0 5871500.0 398.4
725000.0 5872000.0 370.6
725000.0 5872000.0 380.6
725000.0 5872000.0 390.6
725000.0 5872500.0 353.6
725000.0 5872500.0 363.6
725000.0 5872500.0 373.6
725000.0 5873000.0 350.0
725000.0 5873000.0 360.0
725000.0 5873000.0 370.0
725000.0 5873500.0 341.1
725000.0 5873500.0 351.1
725000.0 5873500.0 361.1
725000.0 5874000.0 349.4
725000.0 5874000.0 359.4
725000.0 5874000.0 369.4
725000.0 5874500.0 334.1
725000.0 5874500.0 344.1
725000.0 5874500.0 354.1
725000.0 5875000.0 337.9
725000.0 5875000.0 347.9
725000.0 5875000.0 357.9
725000.0 5875500.0 334.9
725000.0 5875500.0 344.9
725000.0 5875500.0 354.9
725000.0 5876000.0 321.0
725000.0 5876000.0 331.0
725000.0 5876000.0 341.0
725000.0 5876500.0 316.9
725000.0 5876500.0 326.9
725000.0 5876500.0 336.9
725000.0 5877000.0 299.0
725000.0 5877000.0 309.0
725000.0 5877000.0 319.0
725000.0 5877500.0 303.4
725000.0 5877500.0 313.4
725000.0 5877500.0 323.4
725000.0 5878000.0 297.5
725000.0 5878000.0 307.5
725000.0 5878000.0 317.5
725000.0 5878500.0 299.0
725000.0 5878500.0 309.0
725000.0 5878500.0 319.0
725000.0 5879000.0 290.0
725000.0 5879000.0 300.0
725000.0 5879000.0 310.0
725000.0 5879500.0 289.5
725000.0 5879500.0 299.5
725000.0 5879500.0 309.5
725000.0 5880000.0 281.7
725000.0 5880000.0 291.7
725000.0 5880000.0 301.7
725000.0 5880500.0 279.9
725000.0 5880500.0 289.9
725000.0 5880500.0 299.9
725000.0 5881000.0 274.1
725000.0 5881000.0 284.1
725000.0 5881000.0 294.1
725000.0 5881500.0 261.6
725000.0 5881500.0 271.6
725000.0 5881500.0 281.6
725000.0 5882000.0 255.8
725000.0 5882000.0 265.8
725000.0 5882000.0 275.8
725000.0 5882500.0 258.8
725000.0 5882500.0 268.8
725000.0 5882500.0 278.8
725000.0 5883000.0 271.6
725000.0 5883000.0 281.6
725000.0 5883000.0 291.6
725000.0 5883500.0 279.7
725000.0 5883500.0 289.7
725000.0 5883500.0 299.7
725000.0 5884000.0 278.0
725000.0 5884000.0 288.0
725000.0 5884000.0 298.0
725000.0 5884500.0 279.2
725000.0 5884500.0 289.2
725000.0 5884500.0 299.2
725000.0 5887000.0 287.0
725000.0 5887000.0 297.0
725000.0 5887000.0 307.0
725000.0 5887500.0 274.7
725000.0 5887500.0 284.7
725000.0 5887500.0 294.7
725000.0 5888000.0 277.6
725000.0 5888000.0 287.6
725000.0 5888000.0 297.6
725000.0 5888500.0 279.7
725000.0 5888500.0 289.7
725000.0 5888500.0 299.7
725000.0 5889000.0 280.1
725000.0 5889000.0 290.1
725000.0 5889000.0 300.1
725000.0 5889500.0 269.3
725000.0 5889500.0 279.3
725000.0 5889500.0 289.3
725000.0 5890000.0 275.0
725000.0 5890000.0 285.0
725000.0 5890000.0 295.0
725000.0 5890500.0 267.6
725000.0 5890500.0 277.6
725000.0 5890500.0 287.6
725000.0 5891000.0 274.4
725000.0 5891000.0 284.4
725000.0 5891000.0 294.4
725000.0 5891500.0 270.6
725000.0 5891500.0 280.6
725000.0 5891500.0 290.6
725000.0 5892000.0 271.1
725000.0 5892000.0 281.1
725000.0 5892000.0 291.1
725000.0 5892500.0 276.0
725000.0 5892500.0 286.0
725000.0 5892500.0 296.0
725000.0 5893000.0 262.8
725000.0 5893000.0 272.8
725000.0 5893000.0 282.8
725500.0 5864000.0 400.0
725500.0 5864000.0 410.0
725500.0 5864000.0 420.0
725500.0 5864500.0 409.9
725500.0 5864500.0 419.9
725500.0 5864500.0 429.9
725500.0 5865000.0 413.9
725500.0 5865000.0 423.9
725500.0 5865000.0 433.9
725500.0 5865500.0 410.1
725500.0 5865500.0 420.1
725500.0 5865500.0 430.1
725500.0 5866000.0 416.6
725500.0 5866000.0 426.6
725500.0 5866000.0 436.6
725500.0 5866500.0 409.9
725500.0 5866500.0 419.9
725500.0 5866500.0 429.9
725500.0 5867000.0 406.4
725500.0 5867000.0 416.4
725500.0 5867000.0 426.4
725500.0 5867500.0 407.0
725500.0 5867500.0 417.0
725500.0 5867500.0 427.0
725500.0 5868000.0 400.5
725500.0 5868000.0 410.5
725500.0 5868000.0 420.5
725500.0 5868500.0 389.0
725500.0 5868500.0 399.0
725500.0 5868500.0 409.0
725500.0 5869000.0 403.1
725500.0 5869000.0 413.1
725500.0 5869000.0 423.1
725500.0 5869500.0 386.2
725500.0 5869500.0 396.2
725500.0 5869500.0 406.2
725500.0 5870000.0 359.2
725500.0 5870000.0 369.2
725500.0 5870000.0 379.2
725500.0 5870500.0 368.0
725500.0 5870500.0 378.0
725500.0 5870500.0 388.0
725500.0 5871000.0 360.0
725500.0 5871000.0 370.0
725500.0 5871000.0 380.0
725500.0 5871500.0 367.7
725500.0 5871500.0 377.7
725500.0 5871500.0 387.7
725500.0 5872000.0 349.2
725500.0 5872000.0 359.2
725500.0 5872000.0 369.2
725500.0 5872500.0 347.6
725500.0 5872500.0 357.6
725500.0 5872500.0 367.6
725500.0 5873000.0 348.7
725500.0 5873000.0 358.7
725500.0 5873000.0 368.7
725500.0 5873500.0 329.0
725500.0 5873500.0 339.0
725500.0 5873500.0 349.0
725500.0 5874000.0 330.7
725500.0 5874000.0 340.7
725500.0 5874000.0 350.7
725500.0 5874500.0 325.4
725500.0 5874500.0 335.4
725500.0 5874500.0 345.4
725500.0 5875000.0 329.4
725500.0 5875000.0 339.4
725500.0 5875000.0 349.4
725500.0 5875500.0 330.0
725500.0 5875500.0 340.0
725500.0 5875500.0 350.0
725500.0 5876000.0 319.7
725500.0 5876000.0 329.7
725500.0 5876000.0 339.7
725500.0 5876500.0 322.5
725500.0 5876500.0 332.5
725500.0 5876500.0 342.5
725500.0 5877000.0 320.4
725500.0 5877000.0 330.4
725500.0 5877000.0 340.4
725500.0 5877500.0 318.4
725500.0 5877500.0 328.4
725500.0 5877500.0 338.4
725500.0 5878000.0 310.1
725500.0 5878000.0 320.1
725500.0 5878000.0 330.1
725500.0 5878500.0 299.7
725500.0 5878500.0 309.7
725500.0 5878500.0 319.7
725500.0 5879000.0 290.1
725500.0 5879000.0 300.1
725500.0 5879000.0 310.1
725500.0 5879500.0 281.5
725500.0 5879500.0 291.5
725500.0 5879500.0 301.5
725500.0 5880000.0 277.4
725500.0 5880000.0 287.4
725500.0 5880000.0 297.4
725500.0 5880500.0 273.9
725500.0 5880500.0 283.9
725500.0 5880500.0 293.9
725500.0 5881000.0 274.2
725500.0 5881000.0 284.2
725500.0 5881000.0 294.2
725500.0 5881500.0 271.3
725500.0 5881500.0 281.3
725500.0 5881500.0 291.3
725500.0 5882000.0 250.9
725500.0 5882000.0 260.9
725500.0 5882000.0 270.9
725500.0 5882500.0 261.7
725500.0 5882500.0 271.7
725500.0 5882500.0 281.7
725500.0 5883000.0 267.7
725500.0 5883000.0 277.7
725500.0 5883000.0 287.7
725500.0 5883500.0 269.6
725500.0 5883500.0 279.6
725500.0 5883500.0 289.6
725500.0 5884000.0 266.3
725500.0 5884000.0 276.3
725500.0 5884000.0 286.3
725500.0 5884500.0 272.0
725500.0 5884500.0 282.0
725500.0 5884500.0 292.0
725500.0 5885000.0 286.2
725500.0 5885000.0 296.2
725500.0 5885000.0 306.2
725500.0 5885500.0 286.0
725500.0 5885500.0 296.0
725500.0 5885500.0 306.0
725500.0 5886000.0 289.7
725500.0 5886000.0 299.7
725500.0 5886000.0 309.7
725500.0 5886500.0 278.4
725500.0 5886500.0 288.4
725500.0 5886500.0 298.4
725500.0 5887000.0 281.7
725500.0 5887000.0 291.7
725500.0 5887000.0 301.7
725500.0 5887500.0 270.1
725500.0 5887500.0 280.1
725500.0 5887500.0 290.1
725500.0 5888000.0 264.4
725500.0 5888000.0 274.4
725500.0 5888000.0 284.4
725500.0 5888500.0 268.9
725500.0 5888500.0 278.9
725500.0 5888500.0 288.9
725500.0 5889000.0 269.9
725500.0 5889000.0 279.9
725500.0 5889000.0 289.9
725500.0 5889500.0 266.0
725500.0 5889500.0 276.0
725500.0 5889500.0 286.0
725500.0 5890000.0 261.3
725500.0 5890000.0 271.3
725500.0 5890000.0 281.3
725500.0 5890500.0 259.6
725500.0 5890500.0 269.6
725500.0 5890500.0 279.6
725500.0 5891000.0 258.5
725500.0 5891000.0 268.5
725500.0 5891000.0 278.5
725500.0 5891500.0 261.6
725500.0 5891500.0 271.6
725500.0 5891500.0 281.6
725500.0 5892000.0 264.4
725500.0 5892000.0 274.4
725500.0 5892000.0 284.4
725500.0 5892500.0 262.1
725500.0 5892500.0 272.1
725500.0 5892500.0 282.1
725500.0 5913500.0 204.3
725500.0 5913500.0 214.3
725500.0 5913500.0 224.3
725500.0 5914000.0 201.9
725500.0 5914000.0 211.9
725500.0 5914000.0 221.9
725500.0 5914500.0 200.9
725500.0 5914500.0 210.9
725500.0 5914500.0 220.9
725500.0 5915000.0 202.3
725500.0 5915000.0 212.3
725500.0 5915000.0 222.3
725500.0 5915500.0 198.5
725500.0 5915500.0 208.5
725500.0 5915500.0 218.5
725500.0 5916000.0 197.3
725500.0 5916000.0 207.3
725500.0 5916000.0 217.3
726000.0 5864000.0 415.4
726000.0 5864000.0 425.4
726000.0 5864000.0 435.4
726000.0 5864500.0 430.5
726000.0 5864500.0 440.5
726000.0 5864500.0 450.5
726000.0 5865000.0 428.4
726000.0 5865000.0 438.4
726000.0 5865000.0 448.4
726000.0 5865500.0 416.5
726000.0 5865500.0 426.5
726000.0 5865500.0 436.5
726000.0 5866000.0 413.8
726000.0 5866000.0 423.8
726000.0 5866000.0 433.8
726000.0 5866500.0 406.7
726000.0 5866500.0 416.7
726000.0 5866500.0 426.7
726000.0 5867000.0 407.6
726000.0 5867000.0 417.6
726000.0 5867000.0 427.6
726000.0 5867500.0 402.1
726000.0 5867500.0 412.1
726000.0 5867500.0 422.1
726000.0 5868000.0 398.7
726000.0 5868000.0 408.7
726000.0 5868000.0 418.7
726000.0 5868500.0 390.3
726000.0 5868500.0 400.3
726000.0 5868500.0 410.3
726000.0 5869000.0 389.7
726000.0 5869000.0 399.7
726000.0 5869000.0 409.7
726000.0 5869500.0 382.9
726000.0 5869500.0 392.9
726000.0 5869500.0 402.9
726000.0 5870000.0 377.7
726000.0 5870000.0 387.7
726000.0 5870000.0 397.7
726000.0 5870500.0 360.7
726000.0 5870500.0 370.7
726000.0 5870500.0 380.7
726000.0 5871000.0 377.5
726000.0 5871000.0 387.5
726000.0 5871000.0 397.5
726000.0 5871500.0 354.2
726000.0 5871500.0 364.2
726000.0 5871500.0 374.2
726000.0 5872000.0 353.0
726000.0 5872000.0 363.0
726000.0 5872000.0 373.0
726000.0 5872500.0 343.4
726000.0 5872500.0 353.4
726000.0 5872500.0 363.4
726000.0 5873000.0 332.0
726000.0 5873000.0 342.0
726000.0 5873000.0 352.0
726000.0 5873500.0 330.6
726000.0 5873500.0 340.6
726000.0 5873500.0 350.6
726000.0 5874000.0 329.7
726000.0 5874000.0 339.7
726000.0 5874000.0 349.7
726000.0 5874500.0 319.2
726000.0 5874500.0 329.2
726000.0 5874500.0 339.2
726000.0 5875000.0 319.7
726000.0 5875000.0 329.7
726000.0 5875000.0 339.7
726000.0 5875500.0 318.2
726000.0 5875500.0 328.2
726000.0 5875500.0 338.2
726000.0 5876000.0 313.4
726000.0 5876000.0 323.4
726000.0 5876000.0 333.4
726000.0 5876500.0 311.8
726000.0 5876500.0 321.8
726000.0 5876500.0 331.8
726000.0 5877000.0 320.3
726000.0 5877000.0 330.3
726000.0 5877000.0 340.3
726000.0 5877500.0 314.3
726000.0 5877500.0 324.3
726000.0 5877500.0 334.3
726000.0 5878000.0 316.9
726000.0 5878000.0 326.9
726000.0 5878000.0 336.9
726000.0 5878500.0 300.4
726000.0 5878500.0 310.4
726000.0 5878500.0 320.4
726000.0 5879000.0 289.6
726000.0 5879000.0 299.6
726000.0 5879000.0 309.6
726000.0 5879500.0 284.1
726000.0 5879500.0 294.1
726000.0 5879500.0 304.1
726000.0 5880000.0 281.1
726000.0 5880000.0 291.1
726000.0 5880000.0 301.1
726000.0 5880500.0 276.5
726000.0 5880500.0 286.5
726000.0 5880500.0 296.5
726000.0 5881000.0 260.9
726000.0 5881000.0 270.9
726000.0 5881000.0 280.9
726000.0 5881500.0 253.9
726000.0 5881500.0 263.9
726000.0 5881500.0 273.9
726000.0 5882000.0 249.2
726000.0 5882000.0 259.2
726000.0 5882000.0 269.2
726000.0 5882500.0 270.9
726000.0 5882500.0 280.9
726000.0 5882500.0 290.9
726000.0 5883000.0 271.4
726000.0 5883000.0 281.4
726000.0 5883000.0 291.4
726000.0 5883500.0 269.0
726000.0 5883500.0 279.0
726000.0 5883500.0 289.0
726000.0 5884000.0 263.6
726000.0 5884000.0 273.6
726000.0 5884000.0 283.6
726000.0 5884500.0 272.6
726000.0 5884500.0 282.6
726000.0 5884500.0 292.6
726000.0 5885000.0 264.2
726000.0 5885000.0 274.2
726000.0 5885000.0 284.2
726000.0 5885500.0 279.0
726000.0 5885500.0 289.0
726000.0 5885500.0 299.0
726000.0 5886000.0 276.7
726000.0 5886000.0 286.7
726000.0 5886000.0 296.7
726000.0 5886500.0 272.8
726000.0 5886500.0 282.8
726000.0 5886500.0 292.8
726000.0 5887000.0 268.6
726000.0 5887000.0 278.6
726000.0 5887000.0 288.6
726000.0 5887500.0 266.4
726000.0 5887500.0 276.4
726000.0 5887500.0 286.4
726000.0 5888000.0 263.8
726000.0 5888000.0 273.8
726000.0 5888000.0 283.8
726000.0 5888500.0 223.1
726000.0 5888500.0 233.1
726000.0 5888500.0 243.1
726000.0 5889000.0 264.7
726000.0 5889000.0 274.7
726000.0 5889000.0 284.7
726000.0 5889500.0 260.4
726000.0 5889500.0 270.4
726000.0 5889500.0 280.4
726000.0 5890000.0 248.0
726000.0 5890000.0 258.0
726000.0 5890000.0 268.0
726000.0 5890500.0 251.7
726000.0 5890500.0 261.7
726000.0 5890500.0 271.7
726000.0 5891000.0 248.3
726000.0 5891000.0 258.3
726000.0 5891000.0 268.3
726000.0 5891500.0 256.7
726000.0 5891500.0 266.7
726000.0 5891500.0 276.7
726000.0 5892000.0 259.2
726000.0 5892000.0 269.2
726000.0 5892000.0 279.2
726000.0 5892500.0 257.8
726000.0 5892500.0 267.8
726000.0 5892500.0 277.8
726000.0 5893000.0 255.6
726000.0 5893000.0 265.6
726000.0 5893000.0 275.6
726000.0 5913000.0 210.0
726000.0 5913000.0 220.0
726000.0 5913000.0 230.0
726000.0 5913500.0 211.4
726000.0 5913500.0 221.4
726000.0 5913500.0 231.4
726000.0 5914000.0 210.3
726000.0 5914000.0 220.3
726000.0 5914000.0 230.3
726000.0 5914500.0 206.8
726000.0 5914500.0 216.8
726000.0 5914500.0 226.8
726000.0 5915000.0 206.2
726000.0 5915000.0 216.2
726000.0 5915000.0 226.2
726500.0 5864000.0 436.0
726500.0 5864000.0 446.0
726500.0 5864000.0 456.0
726500.0 5864500.0 435.5
726500.0 5864500.0 445.5
726500.0 5864500.0 455.5
726500.0 5865000.0 432.1
726500.0 5865000.0 442.1
726500.0 5865000.0 452.1
726500.0 5865500.0 417.0
726500.0 5865500.0 427.0
726500.0 5865500.0 437.0
726500.0 5866000.0 416.5
726500.0 5866000.0 426.5
726500.0 5866000.0 436.5
726500.0 5866500.0 410.7
726500.0 5866500.0 420.7
726500.0 5866500.0 430.7
726500.0 5867000.0 406.7
726500.0 5867000.0 416.7
726500.0 5867000.0 426.7
726500.0 5867500.0 400.4
726500.0 5867500.0 410.4
726500.0 5867500.0 420.4
726500.0 5868000.0 396.2
726500.0 5868000.0 406.2
726500.0 5868000.0 416.2
726500.0 5868500.0 389.9
726500.0 5868500.0 399.9
726500.0 5868500.0 409.9
726500.0 5869000.0 387.8
726500.0 5869000.0 397.8
726500.0 5869000.0 407.8
726500.0 5869500.0 380.4
726500.0 5869500.0 390.4
726500.0 5869500.0 400.4
726500.0 5870000.0 369.3
726500.0 5870000.0 379.3
726500.0 5870000.0 389.3
726500.0 5870500.0 373.9
726500.0 5870500.0 383.9
726500.0 5870500.0 393.9
726500.0 5871000.0 389.9
726500.0 5871000.0 399.9
726500.0 5871000.0 409.9
726500.0 5871500.0 388.5
726500.0 5871500.0 398.5
726500.0 5871500.0 408.5
726500.0 5872000.0 363.2
726500.0 5872000.0 373.2
726500.0 5872000.0 383.2
726500.0 5872500.0 348.9
726500.0 5872500.0 358.9
726500.0 5872500.0 368.9
726500.0 5873000.0 342.1
726500.0 5873000.0 352.1
726500.0 5873000.0 362.1
726500.0 5873500.0 340.5
726500.0 5873500.0 350.5
726500.0 5873500.0 360.5
726500.0 5874000.0 339.4
726500.0 5874000.0 349.4
726500.0 5874000.0 359.4
726500.0 5874500.0 337.5
726500.0 5874500.0 347.5
726500.0 5874500.0 357.5
726500.0 5875000.0 328.0
726500.0 5875000.0 338.0
726500.0 5875000.0 348.0
726500.0 5875500.0 304.2
726500.0 5875500.0 314.2
726500.0 5875500.0 324.2
726500.0 5876000.0 316.0
726500.0 5876000.0 326.0
726500.0 5876000.0 336.0
726500.0 5876500.0 300.5
726500.0 5876500.0 310.5
726500.0 5876500.0 320.5
726500.0 5877000.0 316.3
726500.0 5877000.0 326.3
726500.0 5877000.0 336.3
726500.0 5877500.0 309.8
726500.0 5877500.0 319.8
726500.0 5877500.0 329.8
726500.0 5878000.0 302.0
726500.0 5878000.0 312.0
726500.0 5878000.0 322.0
726500.0 5878500.0 303.9
726500.0 5878500.0 313.9
726500.0 5878500.0 323.9
726500.0 5879000.0 290.0
726500.0 5879000.0 300.0
726500.0 5879000.0 310.0
726500.0 5879500.0 285.4
726500.0 5879500.0 295.4
726500.0 5879500.0 305.4
726500.0 5880000.0 280.8
726500.0 5880000.0 290.8
726500.0 5880000.0 300.8
726500.0 5880500.0 277.6
726500.0 5880500.0 287.6
726500.0 5880500.0 297.6
726500.0 5881000.0 267.7
726500.0 5881000.0 277.7
726500.0 5881000.0 287.7
726500.0 5881500.0 247.3
726500.0 5881500.0 257.3
726500.0 5881500.0 267.3
726500.0 5882000.0 243.7
726500.0 5882000.0 253.7
726500.0 5882000.0 263.7
726500.0 5882500.0 242.3
726500.0 5882500.0 252.3
726500.0 5882500.0 262.3
726500.0 5883000.0 249.2
726500.0 5883000.0 259.2
726500.0 5883000.0 269.2
726500.0 5883500.0 239.3
726500.0 5883500.0 249.3
726500.0 5883500.0 259.3
726500.0 5884000.0 254.9
726500.0 5884000.0 264.9
726500.0 5884000.0 274.9
726500.0 5884500.0 245.4
726500.0 5884500.0 255.4
726500.0 5884500.0 265.4
726500.0 5885000.0 274.1
726500.0 5885000.0 284.1
726500.0 5885000.0 294.1
726500.0 5885500.0 270.1
726500.0 5885500.0 280.1
726500.0 5885500.0 290.1
726500.0 5886000.0 269.9
726500.0 5886000.0 279.9
726500.0 5886000.0 289.9
726500.0 5886500.0 268.1
726500.0 5886500.0 278.1
726500.0 5886500.0 288.1
726500.0 5887000.0 265.9
726500.0 5887000.0 275.9
726500.0 5887000.0 285.9
726500.0 5887500.0 262.3
726500.0 5887500.0 272.3
726500.0 5887500.0 282.3
726500.0 5888000.0 260.0
726500.0 5888000.0 270.0
726500.0 5888000.0 280.0
726500.0 5888500.0 248.7
726500.0 5888500.0 258.7
726500.0 5888500.0 268.7
726500.0 5889000.0 256.9
726500.0 5889000.0 266.9
726500.0 5889000.0 276.9
726500.0 5889500.0 253.2
726500.0 5889500.0 263.2
726500.0 5889500.0 273.2
726500.0 5890000.0 242.0
726500.0 5890000.0 252.0
726500.0 5890000.0 262.0
726500.0 5890500.0 234.8
726500.0 5890500.0 244.8
726500.0 5890500.0 254.8
726500.0 5891000.0 250.7
726500.0 5891000.0 260.7
726500.0 5891000.0 270.7
726500.0 5891500.0 256.4
726500.0 5891500.0 266.4
726500.0 5891500.0 276.4
726500.0 5892000.0 255.1
726500.0 5892000.0 265.1
726500.0 5892000.0 275.1
726500.0 5892500.0 252.9
726500.0 5892500.0 262.9
726500.0 5892500.0 272.9
726500.0 5893000.0 253.2
726500.0 5893000.0 263.2
726500.0 5893000.0 273.2
726500.0 5893500.0 254.4
726500.0 5893500.0 264.4
726500.0 5893500.0 274.4
726500.0 5896000.0 245.1
726500.0 5896000.0 255.1
726500.0 5896000.0 265.1
726500.0 5896500.0 240.2
726500.0 5896500.0 250.2
726500.0 5896500.0 260.2
726500.0 5897000.0 238.8
726500.0 5897000.0 248.8
726500.0 5897000.0 258.8
726500.0 5897500.0 238.8
726500.0 5897500.0 248.8
726500.0 5897500.0 258.8
726500.0 5898000.0 239.9
726500.0 5898000.0 249.9
726500.0 5898000.0 259.9
726500.0 5898500.0 228.2
726500.0 5898500.0 238.2
726500.0 5898500.0 248.2
726500.0 5899000.0 226.9
726500.0 5899000.0 236.9
726500.0 5899000.0 246.9
726500.0 5908500.0 212.0
726500.0 5908500.0 222.0
726500.0 5908500.0 232.0
726500.0 5909000.0 215.8
726500.0 5909000.0 225.8
726500.0 5909000.0 235.8
726500.0 5913000.0 220.5
726500.0 5913000.0 230.5
726500.0 5913000.0 240.5
726500.0 5913500.0 231.5
726500.0 5913500.0 241.5
726500.0 5913500.0 251.5
726500.0 5914000.0 220.1
726500.0 5914000.0 230.1
726500.0 5914000.0 240.1
726500.0 5914500.0 210.9
726500.0 5914500.0 220.9
726500.0 5914500.0 230.9
727000.0 5864000.0 440.2
727000.0 5864000.0 450.2
727000.0 5864000.0 460.2
727000.0 5864500.0 435.3
727000.0 5864500.0 445.3
727000.0 5864500.0 455.3
727000.0 5865000.0 429.5
727000.0 5865000.0 439.5
727000.0 5865000.0 449.5
727000.0 5865500.0 426.7
727000.0 5865500.0 436.7
727000.0 5865500.0 446.7
727000.0 5866000.0 422.0
727000.0 5866000.0 432.0
727000.0 5866000.0 442.0
727000.0 5866500.0 417.3
727000.0 5866500.0 427.3
727000.0 5866500.0 437.3
727000.0 5867000.0 410.4
727000.0 5867000.0 420.4
727000.0 5867000.0 430.4
727000.0 5867500.0 399.4
727000.0 5867500.0 409.4
727000.0 5867500.0 419.4
727000.0 5868000.0 399.6
727000.0 5868000.0 409.6
727000.0 5868000.0 419.6
727000.0 5868500.0 390.5
727000.0 5868500.0 400.5
727000.0 5868500.0 410.5
727000.0 5869000.0 385.3
727000.0 5869000.0 395.3
727000.0 5869000.0 405.3
727000.0 5869500.0 389.7
727000.0 5869500.0 399.7
727000.0 5869500.0 409.7
727000.0 5870000.0 385.6
727000.0 5870000.0 395.6
727000.0 5870000.0 405.6
727000.0 5870500.0 371.9
727000.0 5870500.0 381.9
727000.0 5870500.0 391.9
727000.0 5871000.0 394.4
727000.0 5871000.0 404.4
727000.0 5871000.0 414.4
727000.0 5871500.0 395.9
727000.0 5871500.0 405.9
727000.0 5871500.0 415.9
727000.0 5872000.0 376.9
727000.0 5872000.0 386.9
727000.0 5872000.0 396.9
727000.0 5872500.0 358.8
727000.0 5872500.0 368.8
727000.0 5872500.0 378.8
727000.0 5873000.0 345.4
727000.0 5873000.0 355.4
727000.0 5873000.0 365.4
727000.0 5873500.0 340.5
727000.0 5873500.0 350.5
727000.0 5873500.0 360.5
727000.0 5874000.0 344.1
727000.0 5874000.0 354.1
727000.0 5874000.0 364.1
727000.0 5874500.0 340.9
727000.0 5874500.0 350.9
727000.0 5874500.0 360.9
727000.0 5875000.0 331.0
727000.0 5875000.0 341.0
727000.0 5875000.0 351.0
727000.0 5875500.0 300.2
727000.0 5875500.0 310.2
727000.0 5875500.0 320.2
727000.0 5876000.0 302.6
727000.0 5876000.0 312.6
727000.0 5876000.0 322.6
727000.0 5876500.0 289.9
727000.0 5876500.0 299.9
727000.0 5876500.0 309.9
727000.0 5877000.0 289.3
727000.0 5877000.0 299.3
727000.0 5877000.0 309.3
727000.0 5877500.0 291.9
727000.0 5877500.0 301.9
727000.0 5877500.0 311.9
727000.0 5878000.0 277.3
727000.0 5878000.0 287.3
727000.0 5878000.0 297.3
727000.0 5878500.0 281.4
727000.0 5878500.0 291.4
727000.0 5878500.0 301.4
727000.0 5879000.0 266.9
727000.0 5879000.0 276.9
727000.0 5879000.0 286.9
727000.0 5879500.0 262.5
727000.0 5879500.0 272.5
727000.0 5879500.0 282.5
727000.0 5880000.0 258.7
727000.0 5880000.0 268.7
727000.0 5880000.0 278.7
727000.0 5880500.0 257.7
727000.0 5880500.0 267.7
727000.0 5880500.0 277.7
727000.0 5881000.0 276.3
727000.0 5881000.0 286.3
727000.0 5881000.0 296.3
727000.0 5881500.0 275.9
727000.0 5881500.0 285.9
727000.0 5881500.0 295.9
727000.0 5882000.0 273.6
727000.0 5882000.0 283.6
727000.0 5882000.0 293.6
727000.0 5882500.0 265.3
727000.0 5882500.0 275.3
727000.0 5882500.0 285.3
727000.0 5883000.0 269.1
727000.0 5883000.0 279.1
727000.0 5883000.0 289.1
727000.0 5883500.0 267.4
727000.0 5883500.0 277.4
727000.0 5883500.0 287.4
727000.0 5884000.0 264.3
727000.0 5884000.0 274.3
727000.0 5884000.0 284.3
727000.0 5884500.0 238.2
727000.0 5884500.0 248.2
727000.0 5884500.0 258.2
727000.0 5885000.0 260.9
727000.0 5885000.0 270.9
727000.0 5885000.0 280.9
727000.0 5885500.0 262.8
727000.0 5885500.0 272.8
727000.0 5885500.0 282.8
727000.0 5886000.0 269.1
727000.0 5886000.0 279.1
727000.0 5886000.0 289.1
727000.0 5886500.0 266.6
727000.0 5886500.0 276.6
727000.0 5886500.0 286.6
727000.0 5887000.0 264.1
727000.0 5887000.0 274.1
727000.0 5887000.0 284.1
727000.0 5887500.0 258.7
727000.0 5887500.0 268.7
727000.0 5887500.0 278.7
727000.0 5888000.0 257.9
727000.0 5888000.0 267.9
727000.0 5888000.0 277.9
727000.0 5888500.0 247.3
727000.0 5888500.0 257.3
727000.0 5888500.0 267.3
727000.0 5889000.0 224.2
727000.0 5889000.0 234.2
727000.0 5889000.0 244.2
727000.0 5889500.0 254.9
727000.0 5889500.0 264.9
727000.0 5889500.0 274.9
727000.0 5890000.0 233.9
727000.0 5890000.0 243.9
727000.0 5890000.0 253.9
727000.0 5890500.0 224.9
727000.0 5890500.0 234.9
727000.0 5890500.0 244.9
727000.0 5891000.0 244.4
727000.0 5891000.0 254.4
727000.0 5891000.0 264.4
727000.0 5891500.0 258.9
727000.0 5891500.0 268.9
727000.0 5891500.0 278.9
727000.0 5892000.0 254.2
727000.0 5892000.0 264.2
727000.0 5892000.0 274.2
727000.0 5892500.0 250.2
727000.0 5892500.0 260.2
727000.0 5892500.0 270.2
727000.0 5893000.0 251.0
727000.0 5893000.0 261.0
727000.0 5893000.0 271.0
727000.0 5893500.0 252.9
727000.0 5893500.0 262.9
727000.0 5893500.0 272.9
727000.0 5894000.0 251.3
727000.0 5894000.0 261.3
727000.0 5894000.0 271.3
727000.0 5894500.0 249.9
727000.0 5894500.0 259.9
727000.0 5894500.0 269.9
727000.0 5895000.0 246.7
727000.0 5895000.0 256.7
727000.0 5895000.0 266.7
727000.0 5895500.0 240.9
727000.0 5895500.0 250.9
727000.0 5895500.0 260.9
727000.0 5896000.0 239.5
727000.0 5896000.0 249.5
727000.0 5896000.0 259.5
727000.0 5896500.0 236.8
727000.0 5896500.0 246.8
727000.0 5896500.0 256.8
727000.0 5897000.0 233.5
727000.0 5897000.0 243.5
727000.0 5897000.0 253.5
727000.0 5897500.0 233.3
727000.0 5897500.0 243.3
727000.0 5897500.0 253.3
727000.0 5898000.0 231.2
727000.0 5898000.0 241.2
727000.0 5898000.0 251.2
727000.0 5898500.0 221.6
727000.0 5898500.0 231.6
727000.0 5898500.0 241.6
727000.0 5899000.0 219.8
727000.0 5899000.0 229.8
727000.0 5899000.0 239.8
727000.0 5905000.0 233.7
727000.0 5905000.0 243.7
727000.0 5905000.0 253.7
727000.0 5905500.0 235.8
727000.0 5905500.0 245.8
727000.0 5905500.0 255.8
727000.0 5906000.0 229.3
727000.0 5906000.0 239.3
727000.0 5906000.0 249.3
727000.0 5906500.0 229.7
727000.0 5906500.0 239.7
727000.0 5906500.0 249.7
727000.0 5908000.0 231.9
727000.0 5908000.0 241.9
727000.0 5908000.0 251.9
727000.0 5908500.0 219.9
727000.0 5908500.0 229.9
727000.0 5908500.0 239.9
727000.0 5909000.0 244.4
727000.0 5909000.0 254.4
727000.0 5909000.0 264.4
727000.0 5912500.0 220.5
727000.0 5912500.0 230.5
727000.0 5912500.0 240.5
727000.0 5913000.0 234.4
727000.0 5913000.0 244.4
727000.0 5913000.0 254.4
727000.0 5913500.0 230.1
727000.0 5913500.0 240.1
727000.0 5913500.0 250.1
727000.0 5914000.0 219.0
727000.0 5914000.0 229.0
727000.0 5914000.0 239.0
727000.0 5914500.0 208.6
727000.0 5914500.0 218.6
727000.0 5914500.0 228.6
727000.0 5915000.0 201.0
727000.0 5915000.0 211.0
727000.0 5915000.0 221.0
727500.0 5864000.0 448.3
727500.0 5864000.0 458.3
727500.0 5864000.0 468.3
727500.0 5864500.0 439.3
727500.0 5864500.0 449.3
727500.0 5864500.0 459.3
727500.0 5865000.0 431.7
727500.0 5865000.0 441.7
727500.0 5865000.0 451.7
727500.0 5865500.0 432.9
727500.0 5865500.0 442.9
727500.0 5865500.0 452.9
727500.0 5866000.0 429.5
727500.0 5866000.0 439.5
727500.0 5866000.0 449.5
727500.0 5866500.0 416.7
727500.0 5866500.0 426.7
727500.0 5866500.0 436.7
727500.0 5867000.0 419.2
727500.0 5867000.0 429.2
727500.0 5867000.0 439.2
727500.0 5867500.0 410.4
727500.0 5867500.0 420.4
727500.0 5867500.0 430.4
727500.0 5868000.0 408.1
727500.0 5868000.0 418.1
727500.0 5868000.0 428.1
727500.0 5868500.0 399.8
727500.0 5868500.0 409.8
727500.0 5868500.0 419.8
727500.0 5869000.0 392.8
727500.0 5869000.0 402.8
727500.0 5869000.0 412.8
727500.0 5869500.0 390.0
727500.0 5869500.0 400.0
727500.0 5869500.0 410.0
727500.0 5870000.0 385.2
727500.0 5870000.0 395.2
727500.0 5870000.0 405.2
727500.0 5870500.0 380.5
727500.0 5870500.0 390.5
727500.0 5870500.0 400.5
727500.0 5871000.0 391.9
727500.0 5871000.0 401.9
727500.0 5871000.0 411.9
727500.0 5871500.0 397.2
727500.0 5871500.0 407.2
727500.0 5871500.0 417.2
727500.0 5872000.0 399.1
727500.0 5872000.0 409.1
727500.0 5872000.0 419.1
727500.0 5872500.0 389.5
727500.0 5872500.0 399.5
727500.0 5872500.0 409.5
727500.0 5873000.0 366.2
727500.0 5873000.0 376.2
727500.0 5873000.0 386.2
727500.0 5873500.0 348.2
727500.0 5873500.0 358.2
727500.0 5873500.0 368.2
727500.0 5874000.0 352.6
727500.0 5874000.0 362.6
727500.0 5874000.0 372.6
727500.0 5874500.0 351.5
727500.0 5874500.0 361.5
727500.0 5874500.0 371.5
727500.0 5875000.0 332.2
727500.0 5875000.0 342.2
727500.0 5875000.0 352.2
727500.0 5875500.0 302.1
727500.0 5875500.0 312.1
727500.0 5875500.0 322.1
727500.0 5876000.0 289.0
727500.0 5876000.0 299.0
727500.0 5876000.0 309.0
727500.0 5876500.0 309.2
727500.0 5876500.0 319.2
727500.0 5876500.0 329.2
727500.0 5877000.0 302.4
727500.0 5877000.0 312.4
727500.0 5877000.0 322.4
727500.0 5877500.0 285.3
727500.0 5877500.0 295.3
727500.0 5877500.0 305.3
727500.0 5878000.0 294.7
727500.0 5878000.0 304.7
727500.0 5878000.0 314.7
727500.0 5878500.0 296.8
727500.0 5878500.0 306.8
727500.0 5878500.0 316.8
727500.0 5879000.0 291.1
727500.0 5879000.0 301.1
727500.0 5879000.0 311.1
727500.0 5879500.0 283.7
727500.0 5879500.0 293.7
727500.0 5879500.0 303.7
727500.0 5880000.0 282.5
727500.0 5880000.0 292.5
727500.0 5880000.0 302.5
727500.0 5880500.0 277.7
727500.0 5880500.0 287.7
727500.0 5880500.0 297.7
727500.0 5881000.0 277.2
727500.0 5881000.0 287.2
727500.0 5881000.0 297.2
727500.0 5881500.0 277.9
727500.0 5881500.0 287.9
727500.0 5881500.0 297.9
727500.0 5882000.0 277.7
727500.0 5882000.0 287.7
727500.0 5882000.0 297.7
727500.0 5882500.0 273.3
727500.0 5882500.0 283.3
727500.0 5882500.0 293.3
727500.0 5883000.0 269.9
727500.0 5883000.0 279.9
727500.0 5883000.0 289.9
727500.0 5883500.0 268.8
727500.0 5883500.0 278.8
727500.0 5883500.0 288.8
727500.0 5884000.0 267.9
727500.0 5884000.0 277.9
727500.0 5884000.0 287.9
727500.0 5884500.0 273.1
727500.0 5884500.0 283.1
727500.0 5884500.0 293.1
727500.0 5885000.0 234.8
727500.0 5885000.0 244.8
727500.0 5885000.0 254.8
727500.0 5885500.0 262.5
727500.0 5885500.0 272.5
727500.0 5885500.0 282.5
727500.0 5886000.0 265.6
727500.0 5886000.0 275.6
727500.0 5886000.0 285.6
727500.0 5886500.0 267.9
727500.0 5886500.0 277.9
727500.0 5886500.0 287.9
727500.0 5887000.0 266.9
727500.0 5887000.0 276.9
727500.0 5887000.0 286.9
727500.0 5887500.0 263.7
727500.0 5887500.0 273.7
727500.0 5887500.0 283.7
727500.0 5888000.0 258.6
727500.0 5888000.0 268.6
727500.0 5888000.0 278.6
727500.0 5888500.0 240.0
727500.0 5888500.0 250.0
727500.0 5888500.0 260.0
727500.0 5889000.0 235.1
727500.0 5889000.0 245.1
727500.0 5889000.0 255.1
727500.0 5889500.0 220.0
727500.0 5889500.0 230.0
727500.0 5889500.0 240.0
727500.0 5890000.0 219.9
727500.0 5890000.0 229.9
727500.0 5890000.0 239.9
727500.0 5890500.0 219.7
727500.0 5890500.0 229.7
727500.0 5890500.0 239.7
727500.0 5891000.0 218.5
727500.0 5891000.0 228.5
727500.0 5891000.0 238.5
727500.0 5891500.0 242.1
727500.0 5891500.0 252.1
727500.0 5891500.0 262.1
727500.0 5892000.0 250.7
727500.0 5892000.0 260.7
727500.0 5892000.0 270.7
727500.0 5892500.0 250.0
727500.0 5892500.0 260.0
727500.0 5892500.0 270.0
727500.0 5893000.0 250.6
727500.0 5893000.0 260.6
727500.0 5893000.0 270.6
727500.0 5893500.0 249.6
727500.0 5893500.0 259.6
727500.0 5893500.0 269.6
727500.0 5894000.0 249.3
727500.0 5894000.0 259.3
727500.0 5894000.0 269.3
727500.0 5894500.0 247.5
727500.0 5894500.0 257.5
727500.0 5894500.0 267.5
727500.0 5895000.0 245.2
727500.0 5895000.0 255.2
727500.0 5895000.0 265.2
727500.0 5895500.0 241.1
727500.0 5895500.0 251.1
727500.0 5895500.0 261.1
727500.0 5896000.0 238.0
727500.0 5896000.0 248.0
727500.0 5896000.0 258.0
727500.0 5896500.0 232.8
727500.0 5896500.0 242.8
727500.0 5896500.0 252.8
727500.0 5897000.0 230.7
727500.0 5897000.0 240.7
727500.0 5897000.0 250.7
727500.0 5897500.0 227.6
727500.0 5897500.0 237.6
727500.0 5897500.0 247.6
727500.0 5898000.0 223.6
727500.0 5898000.0 233.6
727500.0 5898000.0 243.6
727500.0 5898500.0 220.2
727500.0 5898500.0 230.2
727500.0 5898500.0 240.2
727500.0 5899000.0 219.8
727500.0 5899000.0 229.8
727500.0 5899000.0 239.8
727500.0 5899500.0 218.0
727500.0 5899500.0 228.0
727500.0 5899500.0 238.0
727500.0 5900000.0 213.5
727500.0 5900000.0 223.5
727500.0 5900000.0 233.5
727500.0 5906500.0 227.9
727500.0 5906500.0 237.9
727500.0 5906500.0 247.9
727500.0 5907000.0 233.0
727500.0 5907000.0 243.0
727500.0 5907000.0 253.0
727500.0 5907500.0 250.7
727500.0 5907500.0 260.7
727500.0 5907500.0 270.7
727500.0 5908000.0 233.7
727500.0 5908000.0 243.7
727500.0 5908000.0 253.7
727500.0 5908500.0 243.5
727500.0 5908500.0 253.5
727500.0 5908500.0 263.5
727500.0 5909000.0 282.0
727500.0 5909000.0 292.0
727500.0 5909000.0 302.0
727500.0 5912000.0 215.5
727500.0 5912000.0 225.5
727500.0 5912000.0 235.5
727500.0 5912500.0 221.9
727500.0 5912500.0 231.9
727500.0 5912500.0 241.9
727500.0 5913000.0 224.2
727500.0 5913000.0 234.2
727500.0 5913000.0 244.2
727500.0 5913500.0 220.3
727500.0 5913500.0 230.3
727500.0 5913500.0 240.3
727500.0 5914000.0 211.5
727500.0 5914000.0 221.5
727500.0 5914000.0 231.5
727500.0 5914500.0 205.1
727500.0 5914500.0 215.1
727500.0 5914500.0 225.1
727500.0 5915000.0 202.7
727500.0 5915000.0 212.7
727500.0 5915000.0 222.7
727500.0 5915500.0 204.2
727500.0 5915500.0 214.2
727500.0 5915500.0 224.2
728000.0 5864000.0 451.8
728000.0 5864000.0 461.8
728000.0 5864000.0 471.8
728000.0 5864500.0 451.6
728000.0 5864500.0 461.6
728000.0 5864500.0 471.6
728000.0 5865000.0 443.9
728000.0 5865000.0 453.9
728000.0 5865000.0 463.9
728000.0 5865500.0 437.6
728000.0 5865500.0 447.6
728000.0 5865500.0 457.6
728000.0 5866000.0 428.5
728000.0 5866000.0 438.5
728000.0 5866000.0 448.5
